ply
format ascii 1.0
comment Created by CloudCompare v2.11.3 (Anoia)
comment Created 25/04/2022 19:21
obj_info Generated by CloudCompare!
element vertex 1772
property float x
property float y
property float z
end_header
-37.7833 -4.5707 -2.62507 
-37.6577 -4.5172 -2.56177 
-37.8983 -4.2049 -2.5712 
-37.5573 -4.2292 -2.53655 
-37.8639 -4.5341 -2.23583 
-37.637 -4.4694 -2.26159 
-37.9491 -4.157 -2.22404 
-37.5512 -4.1369 -2.26784 
-37.256 -4.5631 -2.64162 
-37.2079 -4.1616 -2.54348 
-37.2528 -4.4682 -2.26622 
-37.3475 -4.225 -2.26068 
-38.0911 -4.8329 -1.9351 
-38.0456 -4.5077 -1.90594 
-37.511 -4.6371 -1.98689 
-37.8398 -3.8484 -2.58779 
-37.5591 -3.845 -2.71974 
-37.8978 -3.5492 -2.55853 
-37.7296 -3.5434 -2.63829 
-37.9486 -3.9415 -2.29136 
-38.0686 -3.5501 -2.31933 
-37.3047 -3.9498 -2.5684 
-37.2907 -4.0011 -2.37172 
-37.9201 -3.1441 -2.64109 
-37.6841 -3.1163 -2.75486 
-38.0944 -3.768 -2.0739 
-33.0109 -5.1232 -2.63767 
-32.8107 -5.2203 -2.57072 
-33.148 -4.8858 -2.44696 
-32.974 -4.9752 -2.43359 
-32.7842 -5.2333 -2.21844 
-33.1406 -4.8286 -2.29265 
-32.8201 -5.0291 -2.31887 
-33.4822 -4.5445 -2.60163 
-33.4739 -4.279 -2.5314 
-33.4301 -4.5766 -2.29953 
-33.412 -4.2799 -2.30413 
-33.2984 -4.5552 -2.14222 
-33.1889 -4.1959 -2.20344 
-33.0166 -5.0453 -2.03028 
-32.8399 -5.0477 -1.92771 
-33.1162 -4.8483 -1.93116 
-32.7843 -4.9709 -2.03805 
-33.0566 -4.8075 -1.49272 
-32.8585 -4.9178 -1.55597 
-33.3989 -4.0736 -1.64087 
-33.2572 -4.5751 -1.85133 
-32.9778 -4.5887 -1.76347 
-33.108 -4.5784 -1.61338 
-32.8451 -4.5439 -1.63334 
-32.6775 -4.1676 -1.54816 
-33.2458 -3.3823 -2.13709 
-32.7227 -3.3714 -2.16787 
-33.3428 -2.755 -2.34833 
-32.6927 -2.7503 -2.60728 
-33.2278 -3.174 -2.2845 
-32.7228 -3.1493 -2.26122 
-33.1788 -2.7933 -2.20328 
-32.7484 -2.8708 -2.30443 
-33.3731 -3.9153 -1.77593 
-33.3644 -3.7692 -1.7328 
-33.3537 -3.5522 -1.64272 
-33.3373 -3.8015 -1.76252 
-33.2162 -3.4796 -1.89332 
-32.8698 -3.5118 -1.88443 
-33.1934 -3.8132 -1.66425 
-32.8549 -3.7924 -1.56945 
-33.1002 -3.5486 -1.58535 
-32.8242 -3.4631 -1.62865 
-33.2129 -3.1445 -1.92149 
-32.7989 -3.1732 -1.94378 
-33.0701 -2.8205 -1.96143 
-32.782 -2.8338 -1.94845 
-32.8269 -2.8652 -1.70917 
-32.8121 -4.8222 -1.31583 
-33.1269 -4.4331 -1.24331 
-32.8917 -4.618 -1.21279 
-33.1767 -4.2141 -1.18202 
-32.8261 -4.1772 -1.1752 
-33.1045 -4.3772 -0.89122 
-32.731 -4.4859 -0.97609 
-33.0727 -4.2168 -0.94041 
-32.884 -4.1994 -0.89503 
-33.1246 -4.3437 -0.55296 
-33.1766 -3.9916 -1.27848 
-32.8667 -3.8759 -1.28735 
-32.7251 -3.5104 -1.25941 
-32.8224 -3.9801 -1.04907 
-32.678 -3.6395 -1.0507 
-33.3651 -2.3451 -2.2858 
-33.1306 -2.4066 -2.51075 
-32.7368 -2.5217 -2.64392 
-33.0804 -2.2146 -2.6124 
-32.8164 -2.202 -2.59396 
-33.1123 -2.4761 -2.3158 
-32.8549 -2.4962 -2.3042 
-33.1139 -2.1769 -2.37008 
-32.8263 -2.1861 -2.34899 
-33.1743 -2.5731 -2.00113 
-32.8439 -2.4114 -2.05141 
-32.7607 -2.2911 -2.02251 
-32.47 -10.7411 -2.93945 
-32.2 -10.8092 -2.84913 
-31.1359 -10.7891 -3.4861 
-30.4362 -10.1363 -3.83433 
-30.431 -10.0864 -3.96386 
-31.0329 -10.695 -3.39172 
-30.8516 -10.6785 -3.23878 
-30.7638 -10.6108 -3.0019 
-30.6779 -10.3733 -2.79608 
-30.5863 -10.5977 -2.83266 
-29.9944 -10.6458 -2.78481 
-30.4415 -10.2247 -2.88271 
-30.1329 -10.2073 -2.79754 
-30.132 -10.1033 -2.82712 
-29.7214 -10.6204 -2.86845 
-29.855 -10.4079 -2.91419 
-32.2568 -5.5582 -3.57316 
-31.7235 -5.5492 -3.79429 
-31.7891 -5.5944 -3.66451 
-32.1855 -5.5889 -3.32958 
-32.0615 -5.7587 -2.87373 
-32.1974 -5.5698 -2.97923 
-31.797 -5.46 -3.34077 
-31.8736 -5.8122 -2.84939 
-31.8081 -5.5456 -2.89714 
-31.6078 -5.6143 -2.87909 
-30.0854 -6.0016 -3.18131 
-30.1045 -5.8747 -2.90402 
-29.8293 -5.4196 -3.59948 
-29.7903 -5.5537 -3.25517 
-29.9187 -5.8908 -2.95435 
-29.7957 -5.6426 -2.96664 
-32.5125 -10.7051 -2.66185 
-30.6231 -10.7693 -2.69275 
-30.6996 -10.4092 -2.72499 
-30.4886 -10.722 -2.66023 
-30.0402 -10.6155 -2.55487 
-30.4063 -10.3415 -2.66905 
-30.1742 -10.3804 -2.64132 
-30.3681 -10.7611 -2.24024 
-30.1261 -10.6901 -2.37608 
-29.6956 -10.6544 -2.63519 
-29.8987 -10.3823 -2.73418 
-32.1192 -5.8401 -2.66635 
-32.5038 -5.5831 -2.46284 
-32.07 -5.4954 -2.60383 
-32.4382 -5.5705 -2.26759 
-32.2364 -5.5305 -2.32327 
-31.8562 -5.803 -2.64024 
-31.3973 -5.7656 -2.45574 
-31.8049 -5.5568 -2.64815 
-31.5348 -5.5463 -2.55091 
-31.3985 -5.7332 -2.31673 
-31.8903 -5.402 -2.36398 
-31.4934 -5.5083 -2.25234 
-32.4041 -5.4914 -2.05917 
-32.1854 -5.4022 -1.90698 
-31.3799 -5.4234 -1.97287 
-30.3312 -6.1885 -2.6617 
-30.0161 -6.0885 -2.70698 
-31.2853 -5.7807 -2.43553 
-30.6575 -5.8306 -2.70408 
-31.1594 -5.8434 -2.19425 
-30.7652 -5.8405 -2.29078 
-31.2069 -5.4918 -2.19351 
-30.7082 -5.6823 -2.13098 
-30.4972 -5.8712 -2.54926 
-30.1519 -5.9159 -2.62721 
-30.4348 -5.8592 -2.2515 
-30.1113 -5.846 -2.24813 
-30.528 -5.6762 -2.26091 
-31.0887 -5.8309 -1.92311 
-30.8069 -5.8431 -1.98304 
-31.1546 -5.5325 -1.92616 
-30.7246 -5.6436 -1.98907 
-31.1015 -5.8195 -1.63666 
-30.9222 -5.802 -1.69934 
-31.0981 -5.6929 -1.74061 
-30.7929 -5.5015 -1.59495 
-30.5375 -5.7476 -1.97103 
-30.0328 -5.7916 -1.9561 
-30.4458 -5.5294 -1.90303 
-30.0841 -5.5806 -1.94865 
-30.4659 -5.5063 -1.54823 
-30.1023 -5.553 -1.56419 
-30.6782 -5.3829 -1.40499 
-30.3576 -5.3836 -1.33634 
-30.0339 -5.4699 -1.30804 
-29.8344 -5.8341 -2.47649 
-29.7337 -5.6213 -2.63697 
-29.5196 -5.5576 -2.55611 
-29.785 -5.8075 -2.29082 
-29.6461 -5.4945 -2.31214 
-29.5869 -5.4083 -2.15178 
-29.789 -5.8101 -1.94474 
-29.5682 -5.8182 -1.88267 
-29.7655 -5.5796 -1.86947 
-29.5645 -5.7091 -1.97167 
-29.7485 -5.751 -1.66299 
-29.7562 -5.5394 -1.60219 
-29.5982 -5.6936 -1.72375 
-27.2641 -5.624 -1.80996 
-27.3234 -5.462 -1.602 
-29.7872 -5.4989 -1.33452 
-27.0957 -10.7253 -3.49018 
-27.0413 -10.7586 -3.42437 
-27.0342 -10.6914 -3.00576 
-26.7161 -10.2647 -2.816 
-26.2869 -9.9265 -3.28899 
-26.12 -9.8936 -3.27645 
-26.2907 -9.994 -2.90745 
-26.1603 -9.9815 -2.88138 
-24.6911 -10.6491 -3.26341 
-24.6093 -10.4355 -3.2515 
-24.6602 -10.6392 -3.0087 
-24.5952 -10.4007 -2.93801 
-25.1919 -9.847 -3.31778 
-25.6641 -9.4787 -3.11988 
-25.4045 -9.4774 -3.13482 
-25.7517 -9.5215 -2.77873 
-25.3879 -9.5441 -2.89935 
-25.1207 -9.8727 -3.33139 
-25.0562 -9.8696 -2.91393 
-24.7505 -9.9411 -2.88777 
-25.0364 -9.6394 -2.92733 
-25.7029 -9.4066 -3.33444 
-25.7042 -9.4173 -2.86669 
-25.4715 -9.4158 -3.04925 
-24.4055 -10.6621 -3.18122 
-24.4379 -10.1162 -2.82436 
-26.7164 -6.9495 -3.52137 
-26.1797 -7.1325 -3.48269 
-26.288 -7.0657 -3.48776 
-26.1017 -7.0135 -3.45928 
-26.698 -6.8285 -3.28914 
-26.6576 -6.8393 -2.96356 
-26.1861 -7.0839 -3.2122 
-26.3996 -6.9841 -3.30451 
-26.0731 -6.9006 -3.2534 
-26.1169 -7.0831 -3.08157 
-26.3669 -6.9939 -2.95664 
-26.0437 -6.9246 -2.88188 
-25.2677 -7.1362 -3.23404 
-25.6967 -6.9315 -3.19816 
-25.4337 -6.9596 -3.27971 
-25.2463 -7.1135 -3.01977 
-25.6561 -6.8899 -2.91165 
-25.334 -6.8784 -2.9706 
-24.9788 -7.2198 -3.28883 
-25.017 -7.2003 -3.02857 
-24.8358 -7.112 -2.77289 
-25.0722 -6.9022 -2.88433 
-26.838 -6.6174 -3.48554 
-26.8946 -6.6666 -3.36527 
-26.7774 -6.6247 -3.24959 
-26.3557 -6.5417 -2.78549 
-26.0304 -6.6391 -2.85365 
-26.6176 -5.4326 -3.31131 
-26.5919 -5.4368 -2.98737 
-26.3551 -5.5283 -3.27099 
-26.082 -5.6128 -3.1958 
-26.4011 -5.5076 -2.93326 
-26.0345 -5.6145 -2.95893 
-25.7254 -6.6663 -2.91246 
-24.2851 -7.1704 -2.93536 
-24.0227 -5.5544 -3.11338 
-24.2274 -5.5172 -2.85578 
-24.0186 -5.5657 -2.99242 
-23.3214 -5.5637 -2.90414 
-22.915 -5.9395 -2.90787 
-22.6611 -5.9907 -2.7733 
-26.9918 -10.7131 -2.62002 
-27.0148 -10.7658 -2.25324 
-26.8815 -10.5281 -2.16672 
-26.7154 -10.1932 -2.3104 
-26.2672 -10.1531 -2.46977 
-26.1017 -10.1815 -2.48824 
-26.242 -10.48 -2.20871 
-26.3857 -10.2949 -2.28018 
-26.0518 -10.2467 -2.32379 
-26.646 -10.1337 -2.38688 
-26.3547 -10.1019 -2.63533 
-26.0805 -10.0244 -2.58518 
-25.9294 -9.7753 -2.56474 
-26.4795 -10.0776 -2.25663 
-25.9755 -10.0044 -2.32526 
-26.9416 -10.6268 -1.97122 
-26.6159 -10.5738 -1.9294 
-26.6466 -10.3976 -1.90622 
-26.7489 -10.6391 -1.61722 
-26.7418 -10.4098 -1.6468 
-26.3933 -10.6238 -1.90151 
-26.0866 -10.6854 -1.8987 
-26.3465 -10.3663 -1.89158 
-26.0196 -10.2284 -1.97443 
-26.3265 -10.6914 -1.64808 
-26.0592 -10.5886 -1.57969 
-26.3271 -10.3123 -1.66146 
-26.0801 -10.3625 -1.62715 
-24.6522 -10.6562 -2.65356 
-24.5642 -10.3981 -2.70149 
-24.6778 -10.6606 -2.29922 
-25.6812 -9.9147 -2.52392 
-25.6812 -9.5253 -2.56672 
-25.3879 -9.5886 -2.70127 
-25.6512 -9.9587 -2.24491 
-25.7496 -9.6321 -2.23024 
-25.4259 -9.5873 -2.28006 
-24.9408 -9.8705 -2.69079 
-24.7257 -9.979 -2.59162 
-24.9629 -9.6759 -2.66513 
-24.8435 -9.765 -2.56804 
-25.0063 -9.8549 -2.27563 
-24.7021 -9.9894 -2.20914 
-25.0623 -9.6845 -2.23067 
-25.3083 -10.7594 -1.83509 
-25.7333 -10.2112 -1.96148 
-25.4518 -10.2351 -1.80303 
-25.7692 -10.6505 -1.51327 
-25.2814 -10.6301 -1.55602 
-25.6874 -10.3294 -1.58835 
-25.3758 -10.2904 -1.50791 
-24.9201 -10.7432 -1.94016 
-24.7036 -10.6486 -1.85746 
-25.004 -10.2936 -1.87774 
-24.6053 -10.2693 -1.8651 
-25.0322 -10.6398 -1.54796 
-24.7254 -10.7104 -1.60867 
-25.0338 -10.3331 -1.64067 
-24.6283 -10.3484 -1.5815 
-25.6212 -9.9578 -1.93756 
-25.3353 -9.9512 -1.81907 
-25.6069 -9.7079 -2.04557 
-25.3448 -9.6524 -1.88941 
-25.5989 -10.132 -1.67676 
-25.3201 -10.0149 -1.69673 
-25.4098 -9.6836 -1.68424 
-24.9816 -9.9217 -1.91015 
-24.6604 -10.0175 -1.91437 
-25.1138 -9.7459 -1.96869 
-25.013 -9.9672 -1.62846 
-24.6802 -10.0774 -1.65588 
-25.7328 -9.4523 -2.59811 
-25.5114 -9.448 -2.58492 
-26.6298 -10.7309 -1.24346 
-26.7283 -10.8085 -1.0447 
-26.4068 -10.6945 -1.27553 
-26.0382 -10.6873 -1.21368 
-26.325 -10.4392 -1.32131 
-26.1351 -10.3799 -1.30258 
-26.2151 -10.5701 -0.94079 
-26.1247 -10.6949 -0.99587 
-26.1602 -10.3353 -1.06438 
-25.7244 -10.6551 -1.25905 
-25.3625 -10.642 -1.24589 
-25.7164 -10.3971 -1.24663 
-25.3979 -10.3599 -1.25776 
-25.7461 -10.5972 -0.93551 
-25.4123 -10.5481 -1.03 
-25.6446 -10.4032 -0.95945 
-25.4256 -10.3549 -1.06279 
-25.0049 -10.5125 -1.246 
-25.0365 -10.3845 -1.19548 
-24.6518 -10.3136 -1.38402 
-24.9797 -10.4046 -1.03448 
-24.434 -10.2504 -2.49907 
-24.4583 -10.566 -2.23827 
-24.4112 -10.31 -2.28013 
-24.4019 -10.0468 -2.49521 
-24.3923 -9.9744 -2.19778 
-24.4791 -10.5062 -1.8626 
-24.422 -10.2982 -2.01046 
-24.3967 -10.3696 -1.54257 
-24.4098 -9.9689 -2.03109 
-27.0407 -6.8504 -2.61565 
-26.7149 -6.9209 -2.58398 
-26.9294 -6.8042 -2.34825 
-26.6579 -6.8845 -2.33116 
-26.3836 -6.9027 -2.61217 
-26.0344 -6.8805 -2.69877 
-26.4219 -6.8851 -2.31281 
-25.5914 -6.7382 -2.6952 
-25.3182 -6.9347 -2.62239 
-25.3553 -6.9388 -2.26815 
-24.9596 -7.1178 -2.55252 
-24.7754 -7.0829 -2.63109 
-25.0404 -6.9315 -2.56762 
-24.7933 -7.0429 -2.51131 
-24.8504 -7.0902 -2.37305 
-24.7691 -7.1223 -2.23305 
-25.0507 -6.8344 -2.22071 
-24.756 -6.9023 -2.17576 
-24.8921 -6.8829 -2.07819 
-24.6758 -6.8731 -1.92694 
-24.5814 -6.8254 -1.65466 
-26.9018 -6.7332 -2.46494 
-26.8038 -6.6915 -2.45881 
-26.9502 -6.3305 -2.45791 
-26.6936 -6.2941 -2.51514 
-26.9574 -6.474 -2.25393 
-26.7153 -6.5614 -2.24942 
-27.0028 -6.157 -2.33003 
-26.7425 -6.239 -2.27394 
-26.4027 -6.5397 -2.61115 
-25.9771 -6.5675 -2.60056 
-25.9693 -6.3112 -2.47937 
-26.3307 -6.5938 -2.2718 
-26.0811 -6.4086 -2.2849 
-26.2094 -6.3951 -2.23858 
-25.982 -6.2377 -2.33965 
-26.5638 -5.7412 -2.75831 
-26.6956 -5.5599 -2.5749 
-27.0851 -5.8477 -2.2597 
-26.5985 -5.7316 -2.28788 
-27.1697 -5.7156 -2.13346 
-26.7475 -5.5337 -2.25935 
-26.5117 -5.8595 -2.57541 
-26.3495 -5.5539 -2.59511 
-25.9788 -5.5871 -2.53558 
-26.4736 -5.89 -2.29188 
-26.0459 -5.9051 -2.28347 
-26.3939 -5.5322 -2.26092 
-26.0491 -5.6125 -2.28974 
-26.7169 -6.4784 -1.93413 
-26.9196 -6.1963 -2.08415 
-26.7072 -6.2576 -1.94223 
-26.9182 -6.4067 -1.59783 
-26.8169 -6.4832 -1.65535 
-26.9202 -6.2332 -1.63125 
-26.7491 -6.251 -1.61227 
-26.4394 -6.562 -1.99043 
-26.1389 -6.4742 -1.90761 
-26.3722 -6.2057 -1.92636 
-26.0052 -6.2499 -1.91172 
-26.3071 -6.4907 -1.6117 
-26.1996 -6.4359 -1.54516 
-26.3556 -6.2348 -1.60497 
-26.0202 -6.2344 -1.557 
-27.0284 -5.925 -1.89178 
-26.7148 -5.868 -1.91201 
-27.1014 -5.4261 -1.87882 
-26.7364 -5.5334 -1.93267 
-26.9735 -5.8194 -1.55554 
-26.7949 -5.8707 -1.57873 
-27.0982 -5.519 -1.62572 
-26.6814 -5.5219 -1.51526 
-26.3982 -5.9035 -1.92373 
-26.0154 -5.8935 -1.88106 
-26.3427 -5.5777 -1.92919 
-26.0254 -5.5616 -1.89764 
-26.4393 -5.9087 -1.59996 
-25.9812 -5.827 -1.56084 
-26.3836 -5.5803 -1.56641 
-25.9474 -5.6037 -1.65346 
-25.6861 -6.565 -2.61345 
-25.4986 -6.5925 -2.47736 
-25.7113 -6.2961 -2.4832 
-25.5734 -6.5102 -2.42412 
-25.3712 -6.5952 -2.24267 
-25.7217 -6.2311 -2.24183 
-25.3898 -6.206 -2.20022 
-25.0502 -6.578 -2.5774 
-25.0383 -6.5893 -2.23812 
-24.7755 -6.6567 -2.15802 
-25.0908 -6.2269 -2.15483 
-25.6688 -5.8915 -2.18788 
-25.3542 -5.8728 -2.24127 
-25.8086 -5.6569 -2.20502 
-25.0801 -5.8776 -2.21212 
-25.1232 -5.7174 -2.29753 
-25.3109 -6.4827 -1.99392 
-25.7845 -6.1965 -1.97542 
-25.3142 -6.2594 -1.95195 
-25.2099 -6.3475 -1.71626 
-24.897 -6.5756 -2.04259 
-24.688 -6.6389 -1.86836 
-25.0706 -6.2353 -1.93596 
-24.805 -6.2223 -1.87045 
-24.6455 -6.5337 -1.59378 
-25.0134 -6.2648 -1.6647 
-24.6458 -6.2184 -1.58242 
-25.6897 -5.9193 -2.05033 
-25.4008 -5.9123 -1.87421 
-25.4672 -5.6846 -1.82751 
-25.8004 -5.8911 -1.55996 
-25.2926 -5.8915 -1.51251 
-25.8453 -5.7168 -1.74676 
-25.2108 -5.5757 -1.48711 
-25.0389 -5.875 -1.84063 
-24.7177 -5.8536 -1.76095 
-25.1389 -5.7148 -1.88974 
-25.0005 -5.8476 -1.58369 
-24.6881 -5.8757 -1.58781 
-24.9902 -5.5002 -1.53696 
-24.6963 -5.6432 -1.57738 
-26.906 -6.6235 -1.29316 
-26.8422 -6.4601 -1.14897 
-26.8871 -6.2711 -1.17205 
-26.8074 -6.2753 -1.19631 
-26.8855 -6.4982 -0.91499 
-26.8303 -6.4362 -0.94194 
-26.9571 -6.248 -0.85882 
-26.8087 -6.3357 -1.02104 
-26.4041 -6.4055 -1.17097 
-26.3654 -6.2186 -1.28524 
-26.0526 -6.2273 -1.2295 
-26.3763 -6.4063 -1.02726 
-26.2459 -6.2379 -1.03488 
-26.0477 -6.1521 -0.91523 
-27.0212 -6.045 -1.34329 
-26.9918 -5.555 -1.34458 
-26.7901 -5.5802 -1.25796 
-26.3394 -5.8995 -1.27115 
-26.023 -5.9188 -1.20534 
-26.3266 -5.5507 -1.26357 
-26.0352 -5.6386 -1.21843 
-26.1142 -5.9488 -0.99778 
-24.6934 -6.222 -1.22655 
-25.3254 -5.9897 -1.19151 
-25.2521 -5.5251 -1.2058 
-25.3483 -6.0148 -1.06782 
-24.9498 -5.8284 -1.36245 
-24.6758 -5.7962 -1.29778 
-24.9572 -5.5141 -1.26364 
-24.613 -5.5509 -1.2658 
-24.6276 -5.7341 -0.95148 
-24.8677 -5.5154 -0.79938 
-24.6985 -5.549 -0.89683 
-24.7615 -5.4986 -0.66 
-23.9361 -7.4723 -2.19425 
-23.7034 -7.4426 -2.31533 
-24.4199 -7.228 -2.47444 
-24.3196 -7.2169 -2.24956 
-23.9482 -7.2956 -2.14225 
-24.4422 -6.9456 -2.19447 
-24.1357 -7.0737 -2.15878 
-23.6478 -7.3885 -2.51263 
-23.6425 -7.3875 -2.25127 
-23.1463 -6.7729 -2.28121 
-23.6019 -7.4565 -1.87441 
-23.2279 -7.4433 -1.80988 
-23.515 -7.4493 -1.68044 
-23.3944 -7.4925 -1.65258 
-24.2714 -7.097 -1.93208 
-24.0263 -7.2627 -1.94116 
-24.3929 -6.927 -1.97357 
-24.0851 -6.9729 -1.83879 
-24.1668 -7.1125 -1.63147 
-23.9407 -7.224 -1.60278 
-24.4109 -6.9677 -1.58039 
-23.9834 -6.9524 -1.63313 
-23.735 -7.3013 -1.91347 
-23.1624 -7.2849 -1.75518 
-23.2986 -6.9311 -1.87944 
-23.6583 -7.2277 -1.56089 
-23.2745 -7.2087 -1.53044 
-23.714 -6.9083 -1.44142 
-23.2961 -6.8941 -1.57276 
-22.9751 -6.8083 -2.09983 
-23.1029 -7.2675 -1.85121 
-23.0126 -6.8859 -1.95587 
-23.0437 -7.2759 -1.62436 
-23.1893 -6.572 -2.23923 
-24.2022 -5.4205 -2.6306 
-24.0629 -5.5147 -2.58002 
-23.9752 -5.5483 -2.24688 
-23.3425 -5.5737 -2.55521 
-23.2472 -5.8887 -2.12827 
-23.824 -5.6334 -2.16502 
-23.1805 -5.6149 -2.14557 
-24.3316 -6.5112 -1.80485 
-24.1517 -6.7211 -1.80326 
-24.3241 -6.5982 -1.63587 
-24.0086 -6.6052 -1.638 
-24.315 -6.2944 -1.608 
-23.9641 -6.214 -1.54874 
-23.1755 -6.6021 -1.87693 
-23.5554 -6.57 -1.49565 
-23.2989 -6.5757 -1.59513 
-23.7576 -6.1865 -1.48196 
-23.2819 -6.2744 -1.458 
-24.397 -5.9767 -1.89047 
-24.2765 -5.3882 -1.78605 
-23.9725 -5.5288 -1.96041 
-24.3326 -5.8554 -1.50905 
-24.3569 -5.4915 -1.53917 
-23.9584 -5.5467 -1.5783 
-23.2761 -5.899 -1.86804 
-23.5781 -5.5565 -1.84097 
-23.2743 -5.5718 -1.84355 
-23.5332 -5.9447 -1.45209 
-23.3368 -5.9149 -1.52727 
-23.6643 -5.5987 -1.57713 
-23.3907 -5.6131 -1.66746 
-22.8106 -6.2809 -2.43552 
-22.7206 -6.0644 -2.55551 
-22.9915 -6.5541 -2.29531 
-22.9193 -6.1976 -2.21242 
-22.709 -6.2415 -2.26544 
-23.0214 -5.7749 -2.59146 
-22.7762 -5.9558 -2.56848 
-23.1409 -5.6619 -2.56612 
-22.9748 -5.9052 -2.28127 
-22.6856 -5.9142 -2.33522 
-23.1057 -5.6294 -2.2767 
-23.0396 -6.4744 -1.99508 
-23.0735 -6.246 -1.9363 
-23.112 -6.5133 -1.51395 
-23.1178 -6.3364 -1.48545 
-22.9287 -5.8982 -1.94308 
-23.0732 -5.5355 -1.97126 
-23.0052 -5.8462 -1.55587 
-24.0325 -7.08 -1.36493 
-24.3321 -6.8764 -1.27463 
-23.9876 -6.9311 -1.26556 
-23.9841 -6.8159 -1.03143 
-23.7118 -7.1283 -1.37443 
-23.3634 -7.1362 -1.26746 
-23.692 -6.8971 -1.21476 
-23.3596 -6.8658 -1.25522 
-23.8085 -6.8684 -0.94 
-23.3187 -6.8106 -0.92485 
-24.3332 -6.5701 -1.2833 
-23.9341 -6.581 -1.22776 
-24.2651 -6.2339 -1.27011 
-23.9718 -6.1851 -1.21874 
-24.4107 -6.5246 -0.88522 
-24.0447 -6.6018 -0.95731 
-24.247 -6.3456 -0.89819 
-24.0873 -6.1841 -0.95477 
-23.6692 -6.5682 -1.27539 
-23.359 -6.5728 -1.29425 
-23.6391 -6.2148 -1.24678 
-23.3112 -6.2281 -1.2383 
-23.6145 -6.5064 -1.04694 
-23.429 -6.6124 -0.85086 
-23.5946 -6.2257 -0.90769 
-23.385 -6.1959 -0.93039 
-24.2876 -5.914 -1.29015 
-23.9835 -5.9757 -1.33278 
-24.3585 -5.5664 -1.21521 
-23.9859 -5.5435 -1.2361 
-24.2621 -5.8372 -0.86372 
-23.958 -5.9268 -0.88998 
-24.3119 -5.5582 -0.9601 
-24.0202 -5.5595 -0.97194 
-23.7025 -5.887 -1.22329 
-23.3565 -5.913 -1.32348 
-23.5639 -5.5674 -1.32264 
-23.4017 -5.6039 -1.24099 
-23.7007 -5.8645 -0.96518 
-23.3596 -5.8614 -0.9063 
-23.6182 -5.5786 -0.9016 
-23.4204 -5.6916 -0.95399 
-24.3533 -6.5826 -0.57225 
-24.1236 -6.7254 -0.6072 
-24.0584 -6.27 -0.66402 
-24.2237 -6.6282 -0.33892 
-24.1 -6.0991 -0.35445 
-23.4023 -6.4634 -0.59253 
-23.419 -6.3781 -0.47096 
-23.3744 -6.4147 -0.36969 
-23.3955 -6.3748 -0.35923 
-24.2113 -6.0206 -0.47314 
-24.0267 -5.8671 -0.62907 
-24.2383 -5.5903 -0.61399 
-23.9796 -5.6297 -0.64726 
-23.6936 -5.5505 -0.65038 
-22.981 -6.0943 -1.20744 
-23.0511 -6.0082 -1.35367 
-31.7528 -5.2177 -3.23323 
-31.7795 -5.145 -2.93175 
-31.5123 -5.1603 -2.82856 
-32.1041 -4.3753 -2.81704 
-32.137 -4.2261 -2.90377 
-31.7944 -4.1749 -2.95201 
-31.5731 -4.2424 -2.92978 
-30.0022 -4.4122 -3.30369 
-29.957 -4.2279 -2.96119 
-32.3566 -3.9486 -2.9402 
-32.1191 -3.8601 -2.90319 
-32.3342 -3.6444 -2.79441 
-32.1383 -3.5102 -2.93669 
-31.8521 -3.5252 -3.16632 
-31.8777 -3.8883 -2.89715 
-31.8098 -3.5602 -2.94959 
-32.0889 -3.2525 -2.78368 
-32.3634 -2.6644 -2.77704 
-32.187 -2.7304 -2.80233 
-31.872 -3.1556 -2.8226 
-30.5173 -2.7938 -3.22365 
-30.3879 -2.8044 -2.85322 
-30.2516 -2.8887 -2.86403 
-29.7123 -4.8094 -3.79105 
-29.6979 -5.3192 -3.45444 
-29.7018 -4.8414 -3.57029 
-29.736 -4.5226 -3.58409 
-29.8267 -4.1308 -3.66994 
-29.7149 -5.2642 -3.28613 
-29.5814 -5.3023 -3.35817 
-29.6699 -4.9276 -3.31233 
-29.5339 -4.8126 -3.31179 
-29.6412 -5.1986 -2.9335 
-29.5231 -5.0524 -2.88761 
-29.7353 -4.8397 -2.90603 
-29.4639 -4.98 -2.91574 
-29.8079 -4.5071 -3.22017 
-29.8508 -4.1544 -3.26618 
-29.8351 -4.5606 -2.9299 
-29.8072 -4.1982 -2.893 
-29.8289 -3.9696 -3.64706 
-29.7447 -3.8191 -3.22266 
-29.7242 -3.4766 -3.24644 
-29.7777 -3.8467 -2.93983 
-29.7316 -3.4904 -2.90577 
-29.6785 -3.3261 -3.20198 
-29.5927 -3.2684 -3.27712 
-29.6967 -3.2249 -2.93661 
-29.5505 -3.2411 -3.03539 
-29.6049 -2.9669 -2.78879 
-27.3735 -2.8593 -3.26453 
-27.3504 -2.7757 -2.9199 
-32.4072 -2.238 -3.90235 
-32.1223 -2.1937 -3.93478 
-32.525 -2.3689 -3.46673 
-32.4394 -2.274 -3.67538 
-32.2339 -2.2399 -3.65537 
-32.4875 -2.4537 -3.23615 
-32.0979 -2.3768 -3.31694 
-32.429 -2.2929 -3.4325 
-32.5099 -2.5295 -2.97053 
-32.1625 -2.4868 -2.94133 
-31.8172 -2.1981 -3.34715 
-31.789 -2.4687 -2.82696 
-31.8389 -2.2921 -3.04406 
-30.748 -2.4671 -3.21706 
-30.6653 -2.3618 -3.10614 
-30.6017 -2.421 -3.24021 
-30.5423 -2.5285 -2.89786 
-27.7293 -2.3896 -3.2916 
-27.3956 -2.6176 -3.27779 
-27.6602 -2.2017 -3.28969 
-27.6543 -2.4514 -2.88856 
-27.4519 -2.5598 -3.0945 
-27.5847 -2.1103 -2.81452 
-27.2284 -1.8255 -3.27871 
-27.4131 -1.7806 -2.92661 
-32.0488 -5.1523 -2.52128 
-32.53 -5.1362 -2.22749 
-32.0668 -5.1677 -2.23154 
-32.4489 -4.9679 -2.26443 
-32.0471 -4.9434 -2.20641 
-31.8346 -5.1628 -2.57743 
-31.521 -5.1706 -2.6466 
-31.5598 -4.9498 -2.52856 
-31.8257 -5.071 -2.30455 
-31.483 -5.2358 -2.27835 
-31.7732 -4.9796 -2.21652 
-31.4813 -4.9152 -2.27253 
-32.0148 -4.3981 -2.68876 
-32.362 -4.1648 -2.64902 
-32.1904 -4.2087 -2.6439 
-31.9977 -4.4587 -2.277 
-32.3306 -4.1796 -2.17572 
-32.2071 -4.247 -2.27737 
-31.7607 -4.4482 -2.59944 
-31.4803 -4.5 -2.52668 
-31.8551 -4.1575 -2.5664 
-31.4614 -4.1993 -2.59765 
-31.7666 -4.5182 -2.29239 
-31.441 -4.5033 -2.23214 
-31.8379 -4.238 -2.28521 
-31.4203 -4.1985 -2.28335 
-32.4912 -5.2153 -2.01255 
-32.1189 -5.2209 -1.94157 
-32.3335 -5.0253 -1.92707 
-32.1261 -4.8877 -1.91096 
-32.5123 -5.0399 -1.71054 
-32.5189 -4.9202 -1.56142 
-32.1844 -4.8147 -1.62769 
-31.3619 -5.0581 -2.03037 
-31.8357 -4.8823 -1.97346 
-31.4958 -4.8491 -1.97574 
-31.9515 -4.7683 -1.67351 
-32.034 -4.4989 -1.92214 
-32.0928 -4.1457 -1.86227 
-32.4473 -4.4238 -1.44091 
-32.0139 -4.5916 -1.54007 
-32.47 -4.2469 -1.57502 
-32.1921 -4.2146 -1.61602 
-31.7884 -4.5953 -1.9165 
-31.4277 -4.5073 -2.04057 
-31.886 -4.3345 -2.0176 
-31.518 -4.1511 -2.08215 
-31.8631 -4.5683 -1.66374 
-31.184 -5.1494 -2.25215 
-31.2008 -4.9068 -2.23579 
-31.1883 -4.4899 -2.50644 
-31.2803 -4.2851 -2.5161 
-31.1282 -4.5385 -2.19977 
-31.1627 -4.2878 -2.15682 
-30.0083 -4.282 -2.53409 
-30.0748 -4.203 -2.22538 
-31.1203 -5.2512 -1.89746 
-31.1052 -4.8702 -1.9517 
-30.9446 -4.8714 -1.92915 
-31.052 -5.2259 -1.61824 
-30.8227 -5.1979 -1.50196 
-31.1218 -4.9096 -1.6522 
-30.8385 -4.8366 -1.52473 
-30.4099 -5.3566 -1.50695 
-30.0648 -5.1919 -1.47483 
-30.59 -4.7698 -1.45916 
-30.0731 -4.8655 -1.59434 
-31.1125 -4.5093 -2.05449 
-30.9325 -4.383 -1.84323 
-31.1471 -4.1265 -1.90238 
-30.8383 -4.2206 -1.81579 
-31.0663 -4.6811 -1.627 
-30.809 -4.5183 -1.52465 
-31.0574 -4.1559 -1.63816 
-30.8836 -4.1666 -1.54424 
-30.0639 -4.1442 -1.88585 
-30.4936 -4.572 -1.45373 
-30.0787 -4.5214 -1.53727 
-30.4158 -4.1085 -1.51051 
-30.0722 -4.2091 -1.57182 
-32.379 -3.934 -2.61941 
-32.2094 -3.8274 -2.607 
-32.3749 -3.4952 -2.53291 
-32.2435 -3.5281 -2.62641 
-32.4328 -3.753 -2.24894 
-32.1092 -3.8796 -2.27794 
-32.4438 -3.5357 -2.26321 
-32.2682 -3.4442 -2.27503 
-31.7855 -3.863 -2.62797 
-31.4917 -3.7967 -2.58367 
-31.8683 -3.5057 -2.59076 
-31.621 -3.4263 -2.49002 
-31.8473 -3.7546 -2.38798 
-31.4613 -3.8412 -2.20909 
-31.7229 -3.5296 -2.32508 
-31.4715 -3.459 -2.24711 
-32.4101 -3.206 -2.47967 
-32.1479 -3.1653 -2.60297 
-32.5059 -2.732 -2.58412 
-32.1584 -2.8744 -2.47555 
-32.5092 -3.2045 -2.33134 
-32.2348 -3.1696 -2.3704 
-32.5544 -2.8209 -2.27501 
-32.0975 -2.8261 -2.33249 
-31.8147 -3.2141 -2.53084 
-31.5557 -3.3187 -2.58318 
-31.8788 -2.844 -2.43685 
-31.801 -3.1259 -2.32176 
-31.5838 -3.2733 -2.21645 
-31.8184 -2.8106 -2.25941 
-31.5919 -2.8821 -2.16711 
-32.4 -3.7851 -1.87259 
-32.216 -3.987 -1.91586 
-32.4936 -3.559 -1.93446 
-32.4647 -3.8706 -1.54766 
-32.2721 -4.0017 -1.67981 
-32.5015 -3.5814 -1.63682 
-31.4576 -3.8242 -2.03362 
-31.4075 -3.4492 -2.00642 
-31.4509 -3.4992 -1.66573 
-31.8402 -3.0924 -2.02214 
-31.5526 -3.1553 -1.92389 
-31.8047 -2.7192 -1.97239 
-31.4115 -2.8062 -1.97414 
-31.4255 -3.1768 -1.60809 
-31.5038 -2.7918 -1.65622 
-31.2033 -3.8089 -2.27516 
-31.2209 -3.4491 -2.19473 
-30.0624 -3.8173 -2.21646 
-31.1859 -3.0124 -2.11558 
-31.17 -2.7165 -2.23656 
-30.8967 -2.7196 -2.0906 
-29.9935 -3.0334 -2.46064 
-30.3967 -2.7961 -2.60729 
-30.1097 -2.9462 -2.59669 
-30.1054 -3.1205 -2.23759 
-30.4622 -2.8094 -2.23124 
-30.1375 -2.9173 -2.24091 
-31.097 -3.8355 -1.8676 
-30.8861 -3.8591 -1.75208 
-31.1259 -3.5074 -1.98264 
-30.8618 -3.5181 -1.81151 
-31.1638 -3.903 -1.72158 
-30.7711 -3.8572 -1.57185 
-31.1354 -3.4768 -1.63179 
-30.8025 -3.5132 -1.59051 
-30.0735 -3.855 -1.89314 
-30.431 -3.488 -1.87628 
-30.1358 -3.4611 -1.85961 
-30.4688 -3.8456 -1.63089 
-30.1262 -3.8505 -1.59446 
-30.5215 -3.4896 -1.57116 
-30.1741 -3.5321 -1.64687 
-31.1268 -3.1452 -1.89725 
-30.8363 -3.0818 -1.82752 
-31.1191 -2.88 -1.9949 
-30.7297 -2.8712 -1.87713 
-31.2392 -3.1791 -1.71116 
-30.8056 -3.1895 -1.5947 
-31.2907 -2.9787 -1.68737 
-30.7369 -2.9418 -1.73796 
-30.4568 -3.1627 -1.8019 
-30.1356 -3.1762 -1.91045 
-30.4248 -2.8247 -1.90359 
-30.2553 -2.8395 -1.9307 
-30.4892 -3.0985 -1.61175 
-30.1786 -3.2925 -1.71097 
-30.5127 -2.9731 -1.68312 
-32.4962 -4.8518 -1.24638 
-32.1642 -4.8001 -1.20733 
-32.3703 -4.8017 -1.04027 
-32.4895 -4.5573 -1.25631 
-32.1734 -4.5325 -1.25766 
-32.4939 -4.2116 -1.28404 
-32.4565 -4.5228 -0.93174 
-32.6459 -4.3465 -1.04857 
-31.877 -4.5671 -1.33797 
-32.4002 -4.478 -0.62166 
-32.2816 -4.5967 -0.48573 
-30.7272 -5.1668 -1.26989 
-30.7428 -4.866 -1.31133 
-30.4365 -5.2229 -1.24335 
-30.15 -5.2051 -1.31928 
-30.4249 -4.8725 -1.1883 
-30.1906 -4.8989 -1.22103 
-30.5131 -4.9285 -1.06753 
-30.7847 -4.4825 -1.13671 
-30.7991 -4.2442 -1.24157 
-30.7958 -4.5019 -0.89597 
-30.8302 -4.2255 -0.88531 
-30.4618 -4.5111 -1.27239 
-30.1706 -4.438 -1.35985 
-30.4284 -4.2117 -1.24792 
-30.1864 -4.206 -1.24826 
-30.5396 -4.5012 -0.90939 
-30.3666 -4.2465 -0.93367 
-30.2779 -4.3002 -0.91473 
-30.6518 -4.4865 -0.56524 
-30.6993 -4.2051 -0.6702 
-30.5252 -4.4059 -0.68859 
-30.521 -4.207 -0.70891 
-32.5366 -3.9098 -1.33417 
-32.6109 -3.5959 -1.31305 
-30.6875 -3.9114 -1.29981 
-30.5194 -3.9413 -1.33938 
-30.5728 -3.597 -1.27103 
-29.6354 -5.2154 -2.61208 
-29.5962 -5.3551 -2.58011 
-29.7987 -4.8349 -2.57811 
-29.584 -4.9985 -2.73698 
-29.6692 -5.1621 -2.25903 
-29.5938 -5.3618 -2.4024 
-29.7784 -4.8355 -2.27086 
-29.8084 -4.5911 -2.61855 
-29.9266 -4.2121 -2.57608 
-29.7517 -4.5443 -2.20028 
-29.7954 -4.2056 -2.31342 
-29.7146 -5.1726 -1.90651 
-29.7601 -4.8647 -1.87145 
-29.7987 -5.2057 -1.59713 
-29.7398 -4.8868 -1.57164 
-29.7941 -4.5387 -1.9073 
-29.8251 -4.2621 -1.96436 
-29.8459 -4.5218 -1.56211 
-29.8979 -4.2538 -1.58154 
-27.2641 -5.2364 -1.75699 
-27.291 -5.2792 -1.69425 
-29.7673 -3.8465 -2.56528 
-29.7585 -3.5186 -2.61389 
-29.7289 -3.8605 -2.27859 
-29.7575 -3.5838 -2.27607 
-29.7599 -3.0393 -2.57524 
-29.5665 -3.1914 -2.72153 
-29.7382 -2.8616 -2.62084 
-29.5992 -2.9529 -2.6664 
-29.6928 -3.2067 -2.20565 
-29.5351 -3.0935 -2.2627 
-29.7504 -2.8479 -2.36559 
-29.7714 -3.8159 -1.97787 
-29.7886 -3.5293 -1.9477 
-29.9217 -3.9033 -1.68781 
-29.7778 -3.1912 -1.88009 
-29.7656 -2.9748 -1.97435 
-27.2325 -3.0394 -2.6934 
-27.4467 -2.7947 -2.67099 
-27.2261 -2.666 -2.31947 
-29.7824 -5.2246 -1.31028 
-32.5581 -2.5781 -2.6482 
-32.118 -2.5663 -2.69838 
-31.7746 -2.4531 -2.61252 
-31.5166 -2.4324 -2.49721 
-31.5848 -2.2923 -2.57161 
-31.7574 -2.5247 -2.33357 
-31.4773 -2.5456 -2.26343 
-31.7755 -2.5425 -2.07351 
-31.4174 -2.5095 -2.00859 
-31.2208 -2.4681 -2.55989 
-30.801 -2.3533 -2.7046 
-31.2067 -2.2688 -2.53633 
-31.0737 -2.5195 -2.29202 
-30.9061 -2.5082 -2.19224 
-30.4885 -2.5322 -2.69118 
-30.5937 -2.5842 -2.27744 
-30.7646 -2.5197 -1.98645 
-30.5588 -2.4889 -1.90481 
-27.5772 -2.5239 -2.67084 
-27.4582 -2.5161 -2.5549 
-27.5892 -2.1505 -2.61837 
-27.4145 -2.1964 -2.64797 
-27.3711 -2.4148 -2.29297 
-27.5732 -2.2786 -2.39699 
-27.4012 -2.1182 -2.26485 
-27.4084 -1.8832 -2.65346 
-26.6752 -5.228 -3.2555 
-26.8922 -5.221 -2.86153 
-26.6354 -5.2413 -2.96229 
-26.4591 -5.2812 -3.26352 
-26.39 -5.3494 -2.80267 
-25.8737 -4.0479 -2.77176 
-24.5324 -5.0977 -2.98865 
-24.698 -4.8835 -3.01777 
-25.676 -4.4518 -2.94702 
-24.5974 -4.5192 -2.88708 
-24.566 -4.2168 -2.93568 
-25.9942 -3.9588 -2.92182 
-26.4518 -3.6096 -2.81898 
-27.03 -3.0737 -3.2621 
-27.0685 -3.097 -3.05346 
-25.1046 -2.731 -2.97361 
-24.417 -5.2794 -3.11336 
-24.4261 -5.2419 -2.93415 
-24.4934 -4.2048 -2.87977 
-26.9719 -2.0385 -3.25228 
-27.003 -2.0972 -2.932 
-26.8782 -2.0367 -3.10383 
-27.1018 -1.9359 -3.26064 
-27.0511 -1.8512 -2.89528 
-25.2022 -2.6049 -3.11899 
-25.2113 -2.5737 -2.9117 
-25.1807 -2.6059 -2.94762 
-27.0796 -5.24 -2.59707 
-26.7799 -5.2368 -2.5138 
-27.0828 -5.2571 -2.33535 
-26.7486 -5.2567 -2.33416 
-26.4571 -5.2793 -2.65384 
-26.4132 -5.3026 -2.24598 
-27.1313 -5.2546 -1.94429 
-26.7455 -5.2595 -1.91198 
-27.1227 -5.3163 -1.60281 
-26.7546 -5.2164 -1.58354 
-26.4986 -5.3594 -1.94965 
-25.9589 -4.179 -1.97118 
-25.3604 -4.6987 -2.42983 
-25.5726 -4.7509 -2.20487 
-25.3842 -4.7532 -2.39595 
-25.628 -4.4728 -2.60577 
-25.2708 -4.6117 -2.50969 
-25.712 -4.2586 -2.66318 
-25.6626 -4.4121 -2.30539 
-25.3283 -4.5874 -2.26683 
-25.7 -4.1984 -2.27246 
-24.9837 -4.5413 -2.55059 
-24.6299 -4.4628 -2.66894 
-24.5464 -4.201 -2.68196 
-25.0114 -4.5267 -2.28093 
-24.6556 -4.4885 -2.281 
-24.5966 -4.2438 -2.32921 
-24.695 -4.7128 -1.87254 
-25.0329 -5.2046 -1.62901 
-24.9052 -4.6989 -1.48017 
-24.5662 -4.7559 -1.68344 
-25.5424 -4.3864 -2.0265 
-25.3219 -4.5598 -1.89141 
-25.6646 -4.2335 -1.93438 
-25.4133 -4.1632 -1.94874 
-25.3519 -4.5338 -1.56972 
-25.6375 -4.0789 -1.60204 
-25.3637 -4.1492 -1.53375 
-25.0076 -4.5342 -2.02324 
-24.6384 -4.5454 -1.92026 
-24.6513 -4.2093 -1.92313 
-25.0342 -4.5435 -1.57311 
-24.6589 -4.4534 -1.55196 
-24.8935 -4.1662 -1.52975 
-24.7234 -4.2589 -1.58986 
-26.8058 -3.3573 -2.58915 
-26.6571 -3.4652 -2.28408 
-26.2923 -3.6967 -2.46531 
-26.0807 -3.9382 -2.64223 
-26.4174 -3.5725 -2.58522 
-26.1675 -3.6791 -2.42884 
-26.2185 -3.9285 -2.11309 
-26.0979 -3.8409 -2.24293 
-26.3867 -3.4968 -2.26897 
-26.0665 -3.5739 -2.19102 
-27.0238 -3.1684 -2.62383 
-26.7842 -3.2053 -2.52428 
-27.0505 -2.8215 -2.59681 
-26.8628 -2.9346 -2.47732 
-26.9542 -3.2555 -2.40499 
-26.6945 -3.1089 -2.27645 
-27.029 -2.7275 -2.30783 
-26.7292 -2.843 -2.17527 
-26.4047 -3.1869 -2.18132 
-26.3809 -2.8727 -2.2149 
-26.172 -2.7502 -2.13651 
-26.252 -3.8557 -1.94722 
-26.0212 -3.8326 -1.9127 
-26.2116 -3.3843 -2.04563 
-26.0391 -3.5346 -1.92862 
-26.0086 -3.4363 -1.52413 
-26.7127 -2.6962 -1.93447 
-26.565 -2.6625 -1.73192 
-26.2895 -3.1712 -1.98327 
-26.0554 -3.0782 -1.86339 
-26.4743 -2.759 -1.86521 
-26.0808 -2.8229 -1.9915 
-26.2562 -3.1534 -1.66724 
-25.9726 -3.1461 -1.60159 
-26.4049 -2.7807 -1.53252 
-26.0253 -2.8633 -1.5915 
-24.508 -3.9312 -2.16629 
-24.7781 -3.1128 -2.51869 
-25.123 -2.6751 -2.70261 
-24.7488 -3.033 -2.2444 
-24.7453 -2.9353 -2.1696 
-25.7077 -3.8139 -1.85369 
-25.4464 -3.9273 -1.79509 
-25.8591 -3.5179 -1.90057 
-25.7071 -3.8278 -1.54753 
-25.3733 -3.8644 -1.58173 
-25.6768 -3.548 -1.56312 
-25.3321 -3.503 -1.59061 
-25.0317 -3.8737 -1.48309 
-24.6224 -3.9611 -1.54398 
-24.9944 -3.4604 -1.55684 
-24.6598 -3.5052 -1.56795 
-25.8492 -3.306 -1.43993 
-25.1906 -3.2789 -1.47426 
-24.9253 -3.0374 -1.84856 
-24.7648 -3.0636 -1.90025 
-24.9413 -2.8238 -1.8397 
-24.7149 -2.8677 -2.00962 
-24.9778 -3.1809 -1.55431 
-24.726 -3.1833 -1.66104 
-24.9707 -2.8539 -1.52843 
-24.682 -2.8503 -1.60547 
-27.0198 -5.235 -1.22935 
-26.7408 -5.2495 -1.22368 
-26.9465 -5.0169 -1.15886 
-26.75 -5.0318 -1.22741 
-24.9332 -5.222 -1.30556 
-24.6196 -5.2922 -1.21624 
-24.9776 -4.8638 -1.26698 
-24.7108 -4.8241 -1.17303 
-24.9086 -5.1506 -1.02243 
-24.6564 -5.1909 -0.87627 
-24.9124 -4.9053 -1.0101 
-24.6819 -4.9009 -0.89968 
-25.3415 -4.2625 -1.40618 
-25.0113 -4.5864 -1.32028 
-24.7007 -4.5209 -1.27781 
-24.9954 -4.1835 -1.27182 
-24.766 -4.1743 -1.22192 
-25.0339 -4.4122 -1.00408 
-24.6849 -4.6072 -0.9795 
-25.0624 -4.2442 -0.99502 
-24.6824 -4.1264 -0.97011 
-24.6945 -5.1006 -0.66701 
-26.0967 -3.1762 -1.366 
-26.4403 -2.7765 -1.19953 
-26.0675 -2.8245 -1.28813 
-25.9678 -3.1997 -0.86148 
-26.2294 -2.6668 -0.92471 
-26.0034 -2.8101 -0.9097 
-25.9598 -3.1124 -0.60574 
-26.0133 -2.8693 -0.58882 
-25.914 -3.0541 -0.33156 
-25.8828 -2.8179 -0.2451 
-25.5731 -3.865 -1.32431 
-25.4288 -3.8265 -1.20878 
-25.6404 -3.4442 -1.24088 
-25.3138 -3.5763 -1.22258 
-25.3594 -3.7984 -0.96382 
-25.6779 -3.5338 -0.98639 
-25.3171 -3.5237 -0.89632 
-24.8943 -3.8221 -1.19074 
-24.6226 -3.8406 -1.30897 
-25.1217 -3.6245 -1.33863 
-24.6618 -3.5259 -1.27671 
-25.026 -3.8217 -0.82738 
-24.6922 -3.849 -0.90236 
-24.9995 -3.4975 -0.8957 
-24.5526 -3.5509 -0.91032 
-25.5317 -3.288 -1.19531 
-25.3734 -3.222 -1.21233 
-25.3141 -2.7891 -1.19352 
-25.6385 -3.2314 -0.86599 
-25.362 -3.1478 -0.92014 
-25.8329 -2.869 -0.88241 
-25.3512 -2.7916 -0.91515 
-25.0711 -3.1249 -1.30688 
-24.6861 -3.1911 -1.29732 
-25.0401 -2.8557 -1.20737 
-24.8269 -2.7323 -1.39016 
-25.1534 -3.26 -0.98651 
-25.1286 -2.8115 -0.92367 
-25.324 -3.8578 -0.62161 
-25.5307 -3.5014 -0.56184 
-25.3746 -3.5135 -0.55817 
-25.3513 -3.8365 -0.26608 
-25.5665 -3.4193 -0.15862 
-25.5018 -3.5421 -0.31631 
-25.0762 -3.7934 -0.52863 
-25.1617 -3.5303 -0.52257 
-25.176 -3.8653 -0.23359 
-25.131 -3.5949 -0.1568 
-25.6896 -3.1447 -0.58264 
-25.4609 -3.0628 -0.52284 
-25.7248 -2.902 -0.54001 
-25.3891 -2.8114 -0.55106 
-25.5973 -3.2863 -0.13757 
-25.6815 -2.9209 -0.20593 
-25.3454 -2.8176 -0.32972 
-25.1614 -2.7885 -0.58144 
-25.168 -2.8538 -0.14814 
-24.3302 -5.2603 -2.56066 
-24.2874 -5.169 -2.15981 
-24.3376 -4.7517 -2.29961 
-24.4891 -4.1379 -2.60573 
-24.4056 -4.526 -2.22254 
-24.4932 -4.1493 -2.34732 
-24.2882 -5.2353 -1.94191 
-24.1341 -5.2301 -1.99532 
-24.3376 -4.742 -2.0157 
-24.3029 -5.3737 -1.66183 
-23.9965 -5.3674 -1.60912 
-24.2038 -4.9401 -1.64836 
-24.1523 -5.0212 -1.41554 
-23.183 -5.3602 -1.9742 
-24.4171 -4.5538 -1.93669 
-24.457 -4.2679 -1.87842 
-24.3991 -4.5531 -1.52438 
-24.5039 -4.1078 -1.58218 
-23.1231 -5.3148 -2.1147 
-23.1324 -5.3649 -1.94002 
-24.477 -3.9833 -2.58716 
-24.4397 -3.9843 -2.25186 
-24.4462 -3.861 -1.79117 
-24.4159 -3.8215 -1.61804 
-24.2458 -3.472 -1.54309 
-24.1319 -3.3752 -1.42046 
-24.4175 -3.2233 -1.4608 
-24.3203 -5.2108 -1.22412 
-24.0808 -5.1446 -1.20431 
-24.2736 -4.8765 -1.1633 
-24.1248 -4.8736 -1.19749 
-24.3497 -5.1633 -0.86528 
-24.145 -5.0466 -1.03841 
-24.3633 -4.8873 -0.92234 
-24.1036 -4.9015 -0.90534 
-23.764 -5.3719 -1.11268 
-24.4147 -4.5451 -1.38871 
-24.3151 -4.9428 -0.6052 
-24.4131 -3.7411 -1.33963 
-24.3606 -3.4611 -1.24985 
-24.1095 -3.3564 -1.36503 
-24.4794 -3.867 -0.87074 
-24.3238 -3.5685 -0.97027 
-23.9881 -3.4479 -0.8866 
-24.2883 -3.141 -1.29618 
-24.1402 -3.3134 -1.38308 
-24.3781 -3.7614 -0.58393 
-24.2871 -3.6527 -0.70119 
-27.0125 -2.3797 -2.56536 
-26.877 -2.3613 -2.73379 
-27.0446 -2.1429 -2.60795 
-27.0583 -2.557 -2.28486 
-26.6816 -2.6191 -2.29488 
-27.0953 -2.1751 -2.3822 
-27.0217 -1.9392 -2.68878 
-26.9468 -2.4572 -1.90995 
-26.8018 -2.4962 -1.93526 
-26.9852 -2.2589 -1.93463 
-26.9017 -2.3576 -1.6058 
-26.7321 -2.4712 -1.6192 
-26.925 -2.2388 -1.5741 
-26.8508 -2.3071 -1.56652 
-26.367 -2.5885 -1.87202 
-26.3141 -2.6041 -1.64067 
-25.9199 -1.7666 -1.54595 
-25.0538 -2.433 -2.53533 
-25.0763 -2.4536 -2.32036 
-24.9717 -2.2766 -2.29195 
-25.036 -2.6111 -1.82288 
-24.9743 -2.4555 -1.55749 
-24.7569 -2.4473 -1.46871 
-24.7482 -2.0896 -1.54031 
-25.7902 -1.7142 -1.47126 
-24.994 -1.8674 -1.41 
-26.7127 -2.4843 -1.2351 
-26.8149 -2.3032 -1.0708 
-26.7876 -2.3607 -0.95594 
-26.7713 -2.2138 -0.90712 
-26.4099 -2.5144 -1.19172 
-26.1093 -2.6276 -1.19425 
-26.3145 -2.4843 -0.87303 
-26.0934 -2.529 -0.90738 
-26.3399 -2.2869 -0.88238 
-25.9442 -2.08 -0.86612 
-25.8703 -1.8584 -1.3721 
-26.6912 -2.0872 -0.57194 
-26.5455 -2.1923 -0.37264 
-26.3392 -2.3587 -0.68273 
-26.0396 -2.4938 -0.54406 
-26.3655 -2.1712 -0.49847 
-26.0457 -2.1667 -0.56332 
-25.9879 -2.5043 -0.33675 
-26.4577 -2.1082 -0.24417 
-25.9343 -2.1656 -0.25982 
-26.5514 -1.8528 -0.53655 
-26.3345 -1.735 -0.59886 
-26.1321 -1.7445 -0.57432 
-26.4031 -1.8759 -0.23229 
-26.1029 -1.7874 -0.33084 
-25.1893 -2.522 -1.2385 
-25.1876 -2.0726 -1.13761 
-25.3037 -2.508 -0.92604 
-25.7971 -2.1468 -0.93479 
-25.3006 -2.1447 -0.851 
-24.9751 -2.4389 -1.18792 
-24.7833 -2.4811 -1.38247 
-24.9429 -2.1683 -1.19819 
-24.7535 -2.1453 -1.28801 
-25.1292 -2.4695 -0.8786 
-24.9599 -2.1619 -0.91648 
-25.6963 -1.7903 -1.24152 
-25.2492 -1.8632 -1.13965 
-25.6692 -1.8118 -0.8155 
-25.3387 -1.8571 -0.91292 
-25.0801 -1.8461 -1.30114 
-25.1536 -1.8679 -0.91942 
-25.6535 -2.4517 -0.57132 
-25.3793 -2.4841 -0.58224 
-25.6534 -2.1271 -0.55943 
-25.3444 -2.1185 -0.6156 
-25.7255 -2.4877 -0.21128 
-25.79 -2.296 -0.32365 
-25.116 -2.5432 -0.53709 
-25.7368 -1.7611 -0.56043 
-25.5218 -1.8024 -0.7169 
-21.8663 0.0275002 -1.62162 
-21.8957 -0.0852013 -1.25627 
-21.81 0.0228004 -0.9614 
-19.3117 -16.7757 -2.8117 
-19.6036 -16.397 -2.8228 
-19.2002 -19.3962 -2.21168 
-19.0763 -19.2557 -2.28812 
-19.5025 -19.3931 -1.96986 
-19.2879 -19.3707 -1.96301 
-19.5097 -19.178 -1.93346 
-19.1172 -19.2727 -1.91684 
-19.4724 -19.4379 -1.64368 
-19.2327 -19.4712 -1.53918 
-19.5856 -19.0793 -1.56036 
-19.2314 -19.1302 -1.57032 
-19.4566 -19.4182 -1.21141 
-19.2235 -19.391 -1.30156 
-19.4558 -19.204 -1.32407 
-19.1998 -19.1452 -1.18124 
-19.3478 -19.3127 -0.86021 
-19.2907 -19.1288 -0.9371 
-18.0774 -20.7235 -2.65595 
-18.1093 -20.6538 -2.49933 
-18.1214 -20.7134 -2.20208 
-18.1339 -20.6814 -2.01186 
-18.1463 -20.5441 -1.90901 
-18.1632 -20.5971 -1.70265 
-17.1445 -20.3573 -1.49383 
-18.1075 -19.7706 -2.60501 
-19.002 -19.3641 -2.20398 
-18.446 -19.3852 -2.22209 
-18.8047 -19.241 -2.15023 
-18.4637 -19.0586 -2.18678 
-18.427 -20.1778 -1.48127 
-18.2149 -19.6825 -2.04958 
-18.3054 -20.158 -1.55223 
-18.2185 -19.6635 -1.50285 
-18.8729 -19.4678 -1.92798 
-18.4748 -19.4525 -2.03028 
-18.8237 -19.2616 -1.92059 
-18.5109 -19.1305 -1.874 
-18.9411 -19.382 -1.69369 
-18.5912 -19.3481 -1.54293 
-18.8921 -19.1188 -1.56575 
-18.5759 -19.2414 -1.60742 
-18.2414 -19.4616 -1.87409 
-18.3488 -19.1452 -1.89439 
-18.1931 -19.5351 -1.54911 
-18.0163 -19.4852 -1.55797 
-18.3229 -19.1336 -1.54108 
-17.8489 -18.9788 -1.55122 
-16.4648 -19.2447 -2.1258 
-17.3514 -20.0579 -1.90521 
-17.0474 -19.6688 -1.88224 
-17.3752 -20.1668 -1.46821 
-17.3 -20.166 -1.63727 
-17.2137 -19.9178 -1.48857 
-16.8961 -19.7225 -1.78535 
-16.9518 -19.7756 -1.5612 
-17.4789 -19.0474 -1.76689 
-17.5246 -19.4412 -1.51159 
-17.5485 -19.1072 -1.52617 
-16.7282 -19.4931 -1.95893 
-16.6081 -19.4075 -1.89844 
-16.4903 -19.09 -1.88955 
-16.7188 -19.527 -1.61261 
-16.5521 -19.3902 -1.56572 
-16.4793 -19.1033 -1.53662 
-17.8992 -20.7092 -1.09758 
-18.26 -20.3922 -1.29337 
-17.9366 -20.7132 -0.90401 
-18.2475 -20.4556 -0.88948 
-17.8437 -20.5453 -0.87875 
-18.0553 -20.681 -0.43051 
-17.9201 -20.7307 -0.46809 
-18.2162 -20.5504 -0.52666 
-17.8877 -20.5176 -0.56775 
-18.1458 -20.7036 -0.34896 
-17.9421 -20.7676 -0.37544 
-18.1443 -20.5054 -0.3205 
-17.9096 -20.4807 -0.23106 
-17.1796 -20.838 -1.15849 
-17.5564 -20.5577 -1.19394 
-17.1494 -20.4442 -1.19968 
-17.0697 -20.7739 -0.95299 
-17.561 -20.5281 -0.94133 
-17.2043 -20.4913 -0.93483 
-16.7792 -20.8546 -1.12246 
-16.6213 -20.8632 -1.10736 
-16.9294 -20.5971 -1.19285 
-16.6314 -20.667 -1.1326 
-16.8426 -20.8241 -0.96376 
-16.5983 -20.7574 -0.9628 
-16.9605 -20.5532 -0.92065 
-17.6083 -20.4504 -0.64243 
-17.1397 -20.4288 -0.60041 
-16.8421 -20.7141 -0.65218 
-16.8979 -20.6132 -0.52278 
-16.9569 -20.5218 -0.36871 
-18.4147 -19.8539 -1.17565 
-18.4002 -19.8761 -1.04649 
-18.2691 -20.1772 -1.26052 
-18.2075 -19.7704 -1.21533 
-18.2264 -20.1108 -0.98806 
-18.1918 -19.7964 -0.95867 
-18.7971 -19.0113 -1.34275 
-18.206 -19.5825 -1.19407 
-17.8467 -19.4642 -1.20895 
-18.2119 -19.1537 -1.25978 
-17.8501 -19.1465 -1.23344 
-18.1326 -19.4864 -0.88671 
-17.918 -19.466 -0.87557 
-18.0512 -19.2646 -1.05039 
-17.9266 -19.2251 -0.98148 
-18.2459 -20.1868 -0.55614 
-17.8794 -20.2091 -0.45227 
-18.2751 -19.9177 -0.51907 
-17.8469 -19.8341 -0.52535 
-18.2427 -20.1252 -0.20932 
-17.9427 -20.2461 -0.29536 
-18.2101 -19.8304 -0.23353 
-18.0058 -19.7498 -0.23766 
-18.4558 -19.5825 -0.17391 
-18.1752 -19.4813 -0.53842 
-17.9137 -19.4905 -0.55333 
-18.1361 -19.5307 -0.19029 
-17.9772 -19.585 -0.35345 
-17.2018 -20.0329 -1.27729 
-17.2051 -19.8394 -1.27663 
-17.5201 -20.1514 -0.77005 
-17.2246 -20.1737 -0.86975 
-17.1762 -19.8467 -0.89473 
-16.9507 -19.7047 -1.22784 
-16.9317 -19.7032 -0.91008 
-17.5676 -19.4958 -1.14903 
-17.451 -19.1574 -1.18421 
-17.3441 -19.07 -1.0952 
-17.6054 -19.5142 -0.99895 
-17.5803 -19.1893 -0.90216 
-17.2583 -19.1186 -0.90263 
-16.8704 -19.6194 -1.15679 
-16.5637 -19.365 -1.21949 
-16.5096 -19.2334 -1.22321 
-16.8344 -19.5353 -0.90197 
-16.5667 -19.39 -0.87725 
-16.4605 -19.115 -0.95483 
-17.6249 -20.2287 -0.57544 
-17.2055 -20.0759 -0.61385 
-17.5278 -19.8844 -0.49338 
-17.1579 -19.8507 -0.53258 
-17.1778 -20.1695 -0.25475 
-17.5349 -19.8129 -0.30735 
-17.2084 -19.8278 -0.20281 
-16.9896 -19.8037 -0.57864 
-16.885 -19.757 -0.2667 
-17.5246 -19.4283 -0.57222 
-17.1331 -19.4982 -0.48739 
-17.4639 -19.0937 -0.56757 
-17.1782 -19.1599 -0.54919 
-17.4873 -19.4627 -0.28891 
-17.1732 -19.4951 -0.23794 
-17.5005 -19.2129 -0.35685 
-17.1431 -19.1374 -0.20664 
-16.8227 -19.5533 -0.63796 
-16.5625 -19.3624 -0.59453 
-16.4447 -18.991 -0.5922 
-16.8401 -19.467 -0.24563 
-16.5918 -19.4356 -0.23075 
-16.8723 -19.1336 -0.23038 
-16.5398 -19.1381 -0.19949 
-19.2385 -17.6729 -2.52995 
-19.2785 -17.9569 -2.12213 
-19.4787 -17.7352 -2.10029 
-19.2196 -17.7934 -2.26224 
-19.8005 -18.886 -1.78457 
-19.9196 -18.7964 -1.58967 
-20.0937 -18.5112 -1.52667 
-19.8749 -18.5461 -1.4445 
-19.6731 -18.907 -1.95552 
-19.0849 -18.4095 -1.78117 
-19.5961 -18.8324 -1.55282 
-19.404 -18.9628 -1.50282 
-19.5931 -18.42 -1.49486 
-19.093 -18.4424 -1.61823 
-19.5362 -18.0874 -1.87203 
-19.3208 -18.1057 -1.87566 
-19.5789 -17.7659 -1.91293 
-19.1941 -17.8238 -1.86434 
-19.5277 -18.0762 -1.63865 
-19.2653 -18.1171 -1.59157 
-19.5855 -17.8452 -1.6714 
-19.21 -17.8352 -1.61792 
-19.1664 -17.008 -2.55467 
-19.3417 -17.5952 -2.09548 
-19.145 -17.1305 -2.27905 
-19.5731 -16.6322 -2.45893 
-19.2999 -16.7595 -2.70217 
-19.6149 -16.4693 -2.65816 
-19.4276 -16.6246 -2.37948 
-19.2104 -16.844 -2.33878 
-19.5558 -16.4168 -2.21993 
-19.1988 -17.5721 -1.88029 
-19.1195 -17.0816 -1.93324 
-19.0731 -17.4271 -1.55855 
-19.1593 -17.1185 -1.61709 
-19.2634 -16.8237 -1.90359 
-19.5741 -16.4714 -1.83997 
-19.2401 -16.4282 -1.96103 
-19.4692 -16.6244 -1.62664 
-19.2677 -16.7354 -1.53876 
-19.5279 -16.3881 -1.62393 
-19.2256 -16.4202 -1.64718 
-19.8086 -18.6588 -1.37134 
-19.8945 -18.4227 -1.34568 
-19.5975 -18.7267 -1.31912 
-19.2449 -18.815 -1.18094 
-19.6043 -18.4636 -1.24785 
-19.2674 -18.465 -1.19213 
-19.1947 -18.8293 -0.92944 
-19.2558 -18.4444 -0.91545 
-19.5998 -18.2478 -1.34552 
-19.1428 -18.1572 -1.19981 
-19.1685 -17.8919 -1.20839 
-19.1525 -18.1712 -0.9087 
-19.1723 -17.9246 -0.89743 
-19.1534 -18.6638 -0.66346 
-19.2292 -18.4775 -0.57345 
-19.2591 -18.444 -0.32962 
-19.1506 -18.2649 -0.60291 
-19.099 -17.9483 -0.69808 
-19.1156 -18.1742 -0.30781 
-19.1478 -17.0722 -1.24001 
-19.275 -16.7645 -1.23604 
-19.4865 -16.4062 -1.35158 
-19.1753 -16.4004 -1.25733 
-19.2269 -16.7511 -0.94979 
-19.2583 -16.4495 -0.84941 
-19.2244 -16.6189 -0.65693 
-19.2518 -16.4534 -0.58037 
-18.8907 -18.9285 -2.09866 
-18.4232 -18.5688 -2.14849 
-17.8848 -18.6541 -2.5577 
-18.1811 -18.4621 -2.56659 
-17.9686 -18.613 -2.61634 
-18.2616 -18.7026 -2.23249 
-17.8508 -18.7371 -2.22245 
-18.1867 -18.4487 -2.25242 
-18.0131 -18.6115 -2.224 
-18.4095 -18.1451 -2.11503 
-18.2136 -18.0811 -2.51779 
-18.2791 -18.1276 -2.29157 
-18.8851 -18.897 -1.96403 
-18.5845 -18.7695 -1.87411 
-19.0574 -18.4217 -1.84563 
-18.5176 -18.5185 -1.9171 
-18.9336 -18.7594 -1.55985 
-18.5538 -18.8327 -1.62499 
-18.9135 -18.3693 -1.51749 
-18.5118 -18.4879 -1.5623 
-18.263 -18.7886 -1.91681 
-17.8682 -18.8607 -1.88126 
-18.3142 -18.3649 -1.99703 
-18.2233 -18.8326 -1.62829 
-17.8843 -18.8337 -1.61175 
-18.9287 -18.122 -1.94397 
-18.5434 -18.0101 -1.89098 
-18.8849 -17.8298 -1.82348 
-18.4654 -17.9272 -1.7571 
-18.7587 -18.121 -1.5496 
-18.5649 -18.118 -1.56834 
-18.8917 -17.7349 -1.57654 
-18.5772 -17.848 -1.59221 
-18.3294 -18.0591 -1.92231 
-18.2776 -17.9403 -1.92271 
-18.2133 -18.1693 -1.61861 
-18.2622 -17.8448 -1.5407 
-17.4867 -18.4145 -2.47166 
-17.5205 -18.7901 -2.19362 
-17.2635 -18.7381 -2.15195 
-17.4659 -18.3752 -2.26359 
-16.7868 -18.4831 -2.45542 
-16.7118 -18.8293 -2.13968 
-16.6047 -18.7855 -2.26564 
-16.7713 -18.526 -2.27401 
-16.6753 -18.6205 -2.19792 
-17.3898 -18.2685 -2.13243 
-17.5908 -18.7511 -1.87334 
-17.2697 -18.8219 -1.89277 
-17.4522 -18.5022 -1.96246 
-17.2674 -18.4494 -1.88799 
-17.533 -18.9184 -1.66266 
-17.2377 -18.8452 -1.66171 
-17.2599 -18.5004 -1.53219 
-16.864 -18.7391 -1.89424 
-16.5881 -18.7998 -1.87751 
-16.9068 -18.495 -1.91875 
-16.7483 -18.7723 -1.62274 
-16.5436 -18.8232 -1.53953 
-16.9028 -18.4595 -1.64441 
-17.4396 -18.2532 -1.87299 
-17.0795 -18.014 -1.46583 
-17.0118 -18.0818 -1.47985 
-17.862 -17.0781 -2.26788 
-18.0577 -16.6852 -2.60502 
-17.9403 -16.7604 -2.46827 
-18.0461 -16.5854 -2.49621 
-17.9063 -16.779 -2.20536 
-17.9959 -16.5022 -2.23222 
-18.9697 -17.5092 -1.7968 
-18.9075 -17.3787 -1.57164 
-19.0146 -17.222 -1.5435 
-17.7433 -17.3428 -1.84505 
-17.8531 -17.0649 -1.89252 
-17.7396 -17.3864 -1.62322 
-17.7382 -17.1393 -1.60009 
-17.9534 -16.7904 -1.94617 
-18.1207 -16.2824 -2.00014 
-17.9282 -16.4762 -1.91337 
-17.9911 -16.8728 -1.7108 
-18.1478 -16.2868 -1.6477 
-17.9454 -16.3992 -1.55871 
-17.7025 -17.3257 -1.90942 
-17.6783 -17.39 -1.6923 
-17.6234 -17.2125 -1.52725 
-18.922 -18.7814 -1.20272 
-18.5576 -18.729 -1.27756 
-18.9918 -18.4303 -1.22268 
-18.6525 -18.4853 -1.28452 
-18.917 -18.7194 -0.93181 
-18.953 -18.3907 -0.88076 
-18.1962 -18.8571 -1.3608 
-17.8766 -18.9371 -1.27214 
-18.8963 -18.1016 -1.24099 
-18.5806 -18.053 -1.26573 
-18.9494 -17.6699 -1.25646 
-18.5351 -17.8031 -1.18244 
-18.9336 -18.0491 -0.76366 
-18.6705 -17.9746 -0.93527 
-18.917 -17.7424 -0.88383 
-18.5542 -17.7923 -0.94902 
-17.8727 -18.0067 -1.27175 
-18.1626 -17.8247 -1.21179 
-17.9836 -17.9465 -1.23092 
-17.9281 -18.0127 -0.90949 
-18.2015 -17.8191 -0.88591 
-17.9016 -17.7526 -0.89177 
-19.0104 -18.7123 -0.513 
-19.011 -18.4663 -0.5695 
-18.9793 -18.5498 -0.30005 
-18.947 -18.1356 -0.56291 
-18.8849 -17.816 -0.5942 
-18.439 -17.8167 -0.56525 
-19.0207 -18.2088 -0.31772 
-18.2148 -17.7185 -0.54623 
-17.8831 -17.7558 -0.58719 
-18.1859 -17.7893 -0.21887 
-17.8603 -17.6805 -0.34166 
-17.3932 -18.9522 -1.25681 
-17.2854 -18.7426 -1.2948 
-17.4606 -18.3843 -1.30468 
-17.2745 -18.4643 -1.25106 
-17.378 -18.8224 -0.81993 
-17.2657 -18.7179 -0.84563 
-17.4604 -18.3299 -0.93513 
-17.1781 -18.4616 -0.89442 
-16.7914 -18.6879 -1.20244 
-16.6322 -18.7921 -1.18142 
-16.8608 -18.4641 -1.2687 
-16.7976 -18.784 -0.97511 
-16.5201 -18.7791 -0.94835 
-16.9392 -18.4523 -0.91909 
-16.6707 -18.6092 -0.96982 
-17.599 -18.1067 -1.23577 
-17.0544 -18.0556 -1.18704 
-17.5749 -18.1105 -0.88485 
-17.2803 -18.1933 -0.83846 
-17.5941 -17.7834 -0.93344 
-17.249 -17.7642 -0.97922 
-16.958 -18.164 -1.22528 
-16.9472 -18.1323 -0.83603 
-17.1782 -18.7702 -0.54056 
-17.393 -18.3117 -0.56654 
-17.2022 -18.437 -0.60517 
-17.1123 -18.8901 -0.2352 
-17.056 -18.5563 -0.14293 
-16.8606 -18.7834 -0.60256 
-16.5261 -18.7662 -0.55095 
-16.8835 -18.4808 -0.55145 
-16.6108 -18.5111 -0.60305 
-16.8196 -18.7805 -0.22762 
-16.4926 -18.7498 -0.23237 
-16.8976 -18.4983 -0.23525 
-17.5279 -18.0908 -0.61229 
-17.2098 -18.1874 -0.59873 
-17.6043 -17.8549 -0.59048 
-17.1264 -17.7868 -0.61939 
-16.9751 -18.084 -0.61326 
-16.9559 -17.939 -0.66599 
-18.9182 -17.437 -1.19038 
-18.605 -17.33 -1.22523 
-18.82 -17.1979 -1.23185 
-18.599 -17.082 -1.11459 
-18.896 -17.448 -0.92416 
-18.5437 -17.5068 -0.86905 
-18.911 -17.0866 -0.9137 
-18.5605 -17.0255 -0.80017 
-18.3606 -17.3938 -1.08708 
-17.8447 -17.3666 -1.13567 
-18.1225 -17.0869 -1.14785 
-17.882 -17.0762 -1.1491 
-18.2055 -17.4137 -0.92936 
-17.8889 -17.4142 -0.84696 
-18.1527 -17.1443 -0.90983 
